ply
format ascii 1.0
comment PCL generated
element vertex 1079
property float x
property float y
property float z
property uchar red
property uchar green
property uchar blue
element camera 0
property float view_px
property float view_py
property float view_pz
property float x_axisx
property float x_axisy
property float x_axisz
property float y_axisx
property float y_axisy
property float y_axisz
property float z_axisx
property float z_axisy
property float z_axisz
property float focal
property float scalex
property float scaley
property float centerx
property float centery
property int viewportx
property int viewporty
property float k1
property float k2
end_header
-0.15244718 0.28046212 0.49481708 0 50 255
-0.14828196 0.27852556 0.49135342 0 50 255
-0.14721543 0.2824513 0.49823132 0 50 255
-0.14214808 0.27870491 0.49157619 0 50 255
-0.14009981 0.28084284 0.49530017 0 50 255
-0.1377821 0.28252634 0.49822253 0 50 255
-0.13669634 0.28687438 0.50584286 0 50 255
-0.1323498 0.28442389 0.50147563 0 50 255
-0.13018595 0.28665894 0.50536996 0 50 255
-0.1267454 0.28612489 0.50438255 0 50 255
-0.12213214 0.28284737 0.49856019 0 50 255
-0.11767006 0.27975529 0.4930661 0 50 255
-0.11451486 0.2796863 0.49290124 0 50 255
-0.11203688 0.28131405 0.495727 0 50 255
-0.11038793 0.28517765 0.50249249 0 50 255
-0.10732917 0.28552079 0.50305474 0 50 255
-0.10310998 0.28270343 0.49804977 0 50 255
-0.098035417 0.27728868 0.4884707 0 50 255
-0.095172271 0.27797964 0.48964882 0 50 255
-0.093590789 0.28258726 0.49772605 0 50 255
-0.091219097 0.28504756 0.50202107 0 50 255
-0.0881804 0.28552642 0.50282675 0 50 255
-0.084023379 0.28228429 0.49708092 0 50 255
-0.080662839 0.2815696 0.49578705 0 50 255
-0.078674354 0.28578094 0.50316751 0 50 255
-0.076194175 0.28848732 0.50789833 0 50 255
-0.07346344 0.29044253 0.51130718 0 50 255
-0.069815643 0.2887854 0.50835776 0 50 255
-0.066108704 0.28671128 0.50467575 0 50 255
-0.061653387 0.28101486 0.49461964 0 50 255
-0.058442522 0.28068364 0.4940086 0 50 255
-0.054928802 0.27877796 0.49062788 0 50 255
0.0026553508 0.099815972 0.1755711 255 255 80
0.0038334832 0.10145482 0.17845388 255 255 80
0.005038193 0.10288782 0.18097506 255 255 80
0.0062686666 0.10421625 0.18331283 255 255 80
0.0076056398 0.10662108 0.18754455 255 255 80
0.0088018412 0.10666809 0.18762945 255 255 80
0.0118092 0.11259525 0.19806154 255 255 80
0.013367994 0.11517704 0.20260707 255 255 80
0.014906166 0.11714295 0.20606987 255 255 80
0.016339751 0.11803574 0.20764558 255 255 80
0.017688902 0.1182307 0.20799425 255 255 80
0.019071873 0.11860885 0.20866583 255 255 80
0.020433018 0.11881095 0.20902814 255 255 80
0.021725113 0.11861137 0.20868433 255 255 80
0.023270609 0.11973864 0.21067554 255 255 80
0.024817633 0.1207507 0.21246468 255 255 80
0.02631871 0.12144629 0.21369758 255 255 80
0.027631294 0.12124652 0.21335557 255 255 80
0.029024584 0.12140301 0.21364093 255 255 80
0.030242445 0.12084457 0.2126686 255 255 80
0.031587042 0.12081865 0.21263385 255 255 80
0.032972805 0.12094589 0.21286908 255 255 80
0.034369517 0.1211017 0.21315511 255 255 80
0.035896871 0.12168862 0.21420038 255 255 80
0.037261799 0.12170215 0.21423686 255 255 80
0.085760273 0.2167692 0.38179079 0 50 255
0.088420399 0.21734993 0.38284171 0 50 255
0.091618173 0.21918595 0.38610455 0 50 255
0.095555596 0.22264972 0.3922359 0 50 255
0.10188867 0.23137796 0.40764362 0 50 255
0.10592239 0.23458165 0.41332015 0 50 255
0.10906758 0.23571037 0.41534176 0 50 255
0.11199754 0.23633169 0.41646987 0 50 255
-0.18330693 0.28636375 0.5112707 0 50 255
-0.17859271 0.28401273 0.50702298 0 50 255
-0.16371118 0.28051099 0.50057268 0 50 255
-0.16160285 0.28236616 0.50383317 0 50 255
-0.15711546 0.28005552 0.49966073 0 50 255
-0.15557322 0.28300756 0.50487781 0 50 255
-0.15142848 0.28125003 0.50169301 0 50 255
-0.14953317 0.2836847 0.50598621 0 50 255
-0.14297591 0.27718806 0.4943504 0 50 255
-0.13976085 0.2770251 0.49401185 0 50 255
-0.13844594 0.28070754 0.5005303 0 50 255
-0.13662191 0.28350627 0.50547236 0 50 255
-0.13183656 0.28014693 0.4994354 0 50 255
-0.12720132 0.27694923 0.49368808 0 50 255
-0.12559058 0.28034154 0.49968854 0 50 255
-0.12341335 0.28261232 0.50368953 0 50 255
-0.12000973 0.28212088 0.50276774 0 50 255
-0.11596078 0.28004435 0.49902213 0 50 255
-0.11372625 0.28235608 0.50309682 0 50 255
-0.11324567 0.28928196 0.51539195 0 50 255
-0.1096408 0.28840166 0.51377916 0 50 255
-0.1026764 0.27835971 0.49584764 0 50 255
-0.097330444 0.27220932 0.48485136 0 50 255
-0.094991595 0.27434218 0.48861036 0 50 255
-0.093274914 0.27847669 0.49593422 0 50 255
-0.090797931 0.28055099 0.49958894 0 50 255
-0.087579951 0.28040314 0.49928737 0 50 255
-0.084912583 0.2820735 0.50222391 0 50 255
-0.080958694 0.27943388 0.49748766 0 50 255
-0.078381769 0.2815257 0.50117624 0 50 255
-0.076300755 0.28565136 0.50848556 0 50 255
-0.073093973 0.285741 0.50861102 0 50 255
-0.060824897 0.2741285 0.48784932 0 50 255
-0.05718803 0.27157706 0.48328054 0 50 255
0.0027889102 0.10368428 0.18439469 255 255 80
0.0040775435 0.10672142 0.18979618 255 255 80
0.0053248648 0.10753681 0.19124702 255 255 80
0.0066642263 0.10956208 0.19485012 255 255 80
0.0079907831 0.11077475 0.19700859 255 255 80
0.0094181448 0.11286672 0.20073155 255 255 80
0.010724956 0.11318704 0.20130424 255 255 80
0.012063777 0.11374082 0.20229271 255 255 80
0.013432195 0.11444002 0.20354046 255 255 80
0.014763577 0.11472848 0.20405823 255 255 80
0.016087204 0.11491497 0.20439519 255 255 80
0.017439904 0.11526571 0.20502488 255 255 80
0.018833805 0.11582103 0.20601906 255 255 80
0.020571059 0.11827834 0.21039711 255 255 80
0.022020103 0.11887962 0.21147437 255 255 80
0.02349172 0.11952657 0.21263346 255 255 80
0.024883654 0.11971974 0.21298586 255 255 80
0.026334485 0.12016176 0.21378155 255 255 80
0.02768732 0.12013518 0.2137441 255 255 80
0.029010028 0.11998651 0.21348989 255 255 80
0.030441077 0.12027924 0.21402153 255 255 80
0.03185844 0.12049514 0.21441701 255 255 80
0.033345047 0.12094453 0.2152285 255 255 80
0.034922756 0.12167592 0.21654238 255 255 80
0.081875883 0.21058927 0.37500203 0 50 255
0.086461514 0.21609834 0.38484082 0 50 255
0.091500983 0.22240776 0.39610702 0 50 255
0.096011519 0.22712834 0.40454558 0 50 255
0.098994523 0.22808358 0.40627876 0 50 255
0.10185158 0.2287076 0.40742266 0 50 255
0.10489161 0.2297014 0.40922603 0 50 255
0.10865843 0.23220037 0.41371179 0 50 255
0.11141416 0.23247179 0.4142296 0 50 255
0.14371656 0.26268679 0.46830726 0 50 255
0.14977153 0.25777245 0.45966676 0 50 255
-0.2533969 0.25013065 0.45290947 0 50 255
-0.28102916 0.29753497 0.53851002 0 50 255
-0.22263318 0.29227349 0.5282461 0 50 255
-0.1710964 0.27393278 0.49450415 0 50 255
-0.17035241 0.27782565 0.50148034 0 50 255
-0.16775894 0.27879289 0.50317478 0 50 255
-0.1610492 0.27282456 0.49235272 0 50 255
-0.15885894 0.27442798 0.49519578 0 50 255
-0.14871708 0.27894059 0.50313455 0 50 255
-0.14431873 0.27662197 0.49890235 0 50 255
-0.14211801 0.27850625 0.50225055 0 50 255
-0.13958731 0.2798155 0.5045616 0 50 255
-0.13611622 0.27925703 0.50350499 0 50 255
-0.13235632 0.278065 0.50130683 0 50 255
-0.13030484 0.2804921 0.50563353 0 50 255
-0.12684454 0.27993253 0.50457639 0 50 255
-0.12354484 0.27970782 0.50412351 0 50 255
-0.12005264 0.27902389 0.50284374 0 50 255
-0.11690359 0.27912208 0.50297409 0 50 255
-0.11506383 0.28243974 0.50890595 0 50 255
-0.11376054 0.28730401 0.51762372 0 50 255
-0.11047197 0.28729472 0.5175612 0 50 255
-0.096500546 0.26682931 0.48060963 0 50 255
-0.094581977 0.27006295 0.48639303 0 50 255
-0.09280131 0.27392209 0.49330282 0 50 255
-0.090457596 0.27633095 0.4976007 0 50 255
-0.087678879 0.27753741 0.49973375 0 50 255
-0.08398518 0.27582958 0.49662045 0 50 255
-0.079081692 0.26986039 0.48583665 0 50 255
-0.07583037 0.2692734 0.4847444 0 50 255
-0.072178833 0.27896345 0.50211811 0 50 255
-0.067802489 0.27416727 0.49345243 0 50 255
-0.063345857 0.26856586 0.4833397 0 50 255
-0.059995696 0.26732391 0.4810746 0 50 255
-0.05611464 0.2634562 0.47408602 0 50 255
0.0029504383 0.10846999 0.19506586 255 255 80
0.004247013 0.10991444 0.19766368 255 255 80
0.0056040226 0.11190569 0.20124546 255 255 80
0.006904297 0.11223409 0.20183742 255 255 80
0.0082509061 0.11309454 0.20338681 255 255 80
0.0095705325 0.11340198 0.20394231 255 255 80
0.010946544 0.11422436 0.20542447 255 255 80
0.012174048 0.11348693 0.20410202 255 255 80
0.013448416 0.1132864 0.20374568 255 255 80
0.014755536 0.11337271 0.20390582 255 255 80
0.016128283 0.11390859 0.2048751 255 255 80
0.017446084 0.11400529 0.20505507 255 255 80
0.018961448 0.11528979 0.20737211 255 255 80
0.020582924 0.11701043 0.21047436 255 255 80
0.022170901 0.11834217 0.21287782 255 255 80
0.023599999 0.11872141 0.21356857 255 255 80
0.024971519 0.11878548 0.2136929 255 255 80
0.026428418 0.11922814 0.21449888 255 255 80
0.027791658 0.11922556 0.21450445 255 255 80
0.029432859 0.12035994 0.21655615 255 255 80
0.030908031 0.12074433 0.21725905 255 255 80
0.077693425 0.20349124 0.36640829 0 50 255
0.080968305 0.20590031 0.370774 0 50 255
0.085306615 0.21080109 0.37962818 0 50 255
0.096942157 0.22673677 0.40839082 0 50 255
0.099465616 0.22657767 0.4081372 0 50 255
0.10191605 0.22626451 0.40760651 0 50 255
0.1044645 0.22617918 0.40748665 0 50 255
0.10836251 0.22894938 0.41251215 0 50 255
0.1096286 0.22615938 0.40751988 0 50 255
0.16554859 0.256726 0.46317765 0 50 255
0.19761999 0.26428497 0.47719982 0 50 255
-0.25945565 0.28535438 0.52223307 0 50 255
-0.23005837 0.28166315 0.51510447 0 50 255
-0.17059606 0.27000326 0.49298063 0 50 255
-0.17323969 0.27929819 0.50989807 0 50 255
-0.16805521 0.27608606 0.50398099 0 50 255
-0.16137363 0.2702426 0.49326229 0 50 255
-0.15738922 0.26877445 0.49053115 0 50 255
-0.14833379 0.2750341 0.50174636 0 50 255
-0.14571631 0.2761007 0.50364023 0 50 255
-0.14423083 0.27940822 0.50962132 0 50 255
-0.14037512 0.27817053 0.50731218 0 50 255
-0.13421267 0.27219656 0.49636695 0 50 255
-0.13249059 0.27515751 0.50171614 0 50 255
-0.13215949 0.28122434 0.51272726 0 50 255
-0.13108326 0.28597185 0.52133149 0 50 255
-0.12196385 0.27296397 0.49756944 0 50 255
-0.1179684 0.27103746 0.49401012 0 50 255
-0.11520046 0.27190319 0.49554089 0 50 255
-0.11262648 0.27328825 0.49801838 0 50 255
-0.10970463 0.28202885 0.51385218 0 50 255
-0.10595125 0.28072712 0.51143461 0 50 255
-0.10016138 0.27377677 0.49872842 0 50 255
-0.095969573 0.27088344 0.49341509 0 50 255
-0.093364626 0.27242514 0.49618134 0 50 255
-0.091649443 0.27676171 0.50403798 0 50 255
-0.09020631 0.28226355 0.51401615 0 50 255
-0.085865952 0.27877268 0.50761902 0 50 255
-0.074632429 0.26198 0.47696847 0 50 255
-0.072432809 0.26502052 0.48246905 0 50 255
-0.070656322 0.26994658 0.49140218 0 50 255
-0.06702514 0.2679148 0.48767015 0 50 255
-0.06279245 0.26316521 0.47899306 0 50 255
-0.060009241 0.26431614 0.48105729 0 50 255
0.0030553481 0.1110635 0.20199205 255 255 80
0.0043405253 0.11106431 0.20199379 255 255 80
0.005643764 0.11142122 0.20264377 255 255 80
0.0069763293 0.11211661 0.20390999 255 255 80
0.0082417764 0.11168434 0.20312591 255 255 80
0.0095551694 0.11193088 0.20357698 255 255 80
0.010941029 0.11286607 0.2052812 255 255 80
0.012254759 0.11293705 0.20541422 255 255 80
0.013585978 0.11313999 0.20578785 255 255 80
0.014933124 0.11342819 0.2063172 255 255 80
0.016306749 0.11385472 0.20709877 255 255 80
0.017669791 0.11414911 0.20764057 255 255 80
0.019104257 0.11483189 0.20888948 255 255 80
0.02063269 0.11595391 0.21093819 255 255 80
0.022103246 0.11663353 0.2121827 255 255 80
0.02364929 0.11761037 0.21396863 255 255 80
0.02505468 0.11781947 0.21435848 255 255 80
0.026490591 0.1181431 0.21495731 255 255 80
0.027967451 0.1186087 0.21581499 255 255 80
0.068533465 0.18875696 0.34368965 255 255 80
0.072609238 0.19380631 0.3529098 255 255 80
0.077818878 0.20148897 0.36692736 0 50 255
0.082374439 0.20708047 0.37713915 0 50 255
0.085348152 0.20849174 0.37973949 0 50 255
0.088778615 0.2109106 0.38417596 0 50 255
0.098070778 0.22084518 0.40233842 0 50 255
0.099375255 0.21810028 0.39737126 0 50 255
0.10257843 0.21955535 0.40005657 0 50 255
0.10776768 0.2250883 0.41017386 0 50 255
0.11083033 0.2260233 0.41191375 0 50 255
-0.21834871 0.27594501 0.5103519 0 50 255
-0.19741611 0.26939809 0.49798706 0 50 255
-0.17568487 0.2799584 0.51701069 0 50 255
-0.17196187 0.27923054 0.51561099 0 50 255
-0.16414011 0.27169028 0.50163341 0 50 255
-0.1609644 0.27169448 0.50158715 0 50 255
-0.14754063 0.27039301 0.49897096 0 50 255
-0.14333923 0.26844892 0.49533096 0 50 255
-0.14213304 0.27215305 0.50211281 0 50 255
-0.14024815 0.27469763 0.50675446 0 50 255
-0.13688046 0.27438939 0.5061332 0 50 255
-0.13464741 0.27639553 0.50978118 0 50 255
-0.13507384 0.28409407 0.52392673 0 50 255
-0.12972504 0.279728 0.51582277 0 50 255
-0.12256721 0.27113426 0.49992573 0 50 255
-0.11732683 0.26643836 0.4912186 0 50 255
-0.11540753 0.26923391 0.49632415 0 50 255
-0.11204143 0.26871654 0.49532267 0 50 255
-0.10854737 0.26785374 0.49368536 0 50 255
-0.10614464 0.26971281 0.49706531 0 50 255
-0.10428397 0.27310547 0.50327158 0 50 255
-0.10041492 0.27128696 0.49987519 0 50 255
-0.096871749 0.27025893 0.49793687 0 50 255
-0.094352044 0.27211341 0.50131011 0 50 255
-0.091940291 0.27441987 0.50551611 0 50 255
-0.089188345 0.27584121 0.50809216 0 50 255
-0.085154288 0.27325529 0.50328809 0 50 255
-0.080342643 0.26787519 0.49333984 0 50 255
-0.075257733 0.26111019 0.48084381 0 50 255
-0.072303616 0.26147842 0.48148599 0 50 255
-0.070948154 0.26791632 0.49330497 0 50 255
-0.067862853 0.26811546 0.49363694 0 50 255
-0.06351652 0.26311037 0.48438904 0 50 255
-0.059183072 0.25765151 0.4743081 0 50 255
0.0018166999 0.11270016 0.20731737 255 255 80
0.0031140416 0.11190886 0.20586142 255 255 80
0.0043749446 0.11066432 0.20357236 255 255 80
0.0056715109 0.11068438 0.20361015 255 255 80
0.0069670621 0.11068076 0.20360506 255 255 80
0.0082741557 0.11083284 0.20388702 255 255 80
0.0095701115 0.11081467 0.20385641 255 255 80
0.010923272 0.11138412 0.2049074 255 255 80
0.01226724 0.11174835 0.20558155 255 255 80
0.013659155 0.11243705 0.20685327 255 255 80
0.015008882 0.11268792 0.20732009 255 255 80
0.016392391 0.11313137 0.20814194 255 255 80
0.017769985 0.11347077 0.20877296 255 255 80
0.019290835 0.11461409 0.21088378 255 255 80
0.02080646 0.11557967 0.21266833 255 255 80
0.022270799 0.11615986 0.21374442 255 255 80
0.023796078 0.11697285 0.21524955 255 255 80
0.025299858 0.11759742 0.21640871 255 255 80
0.026779713 0.11805207 0.21725582 255 255 80
0.055150166 0.17207474 0.31682518 255 255 80
0.058363624 0.17568409 0.32349303 255 255 80
0.068556957 0.18663745 0.34373692 255 255 80
0.071816213 0.18947214 0.34898445 255 255 80
0.076437585 0.19562303 0.36034185 255 255 80
0.080279179 0.19947851 0.3674731 255 255 80
0.084556155 0.20416738 0.37614146 0 50 255
0.086692303 0.20357144 0.37507463 0 50 255
0.091460101 0.20902178 0.38514924 0 50 255
0.093927674 0.20906818 0.38526773 0 50 255
0.097859941 0.21228969 0.39123839 0 50 255
0.10004518 0.21165566 0.39010429 0 50 255
0.10545149 0.21770221 0.40128455 0 50 255
0.10912427 0.21996905 0.40549958 0 50 255
-0.28080863 0.28709233 0.53796351 0 50 255
-0.17895913 0.26690835 0.49884027 0 50 255
-0.16384892 0.27332094 0.51048619 0 50 255
-0.16055746 0.27322528 0.51025116 0 50 255
-0.15760417 0.27371302 0.51110584 0 50 255
-0.1538844 0.27286226 0.50946134 0 50 255
-0.14883941 0.26957497 0.5032686 0 50 255
-0.14281134 0.26432419 0.49341235 0 50 255
-0.13923848 0.26348433 0.49179143 0 50 255
-0.13906644 0.26918906 0.50238526 0 50 255
-0.13776861 0.27293122 0.50931489 0 50 255
-0.13508487 0.27404165 0.51133299 0 50 255
-0.13045092 0.27115321 0.50589043 0 50 255
-0.12788542 0.2725271 0.5084008 0 50 255
-0.12426047 0.27165604 0.50672388 0 50 255
-0.12105368 0.27167737 0.50671226 0 50 255
-0.11804175 0.27214926 0.50754142 0 50 255
-0.11387967 0.2699216 0.50333714 0 50 255
-0.10841344 0.26438507 0.49296486 0 50 255
-0.10592364 0.2659938 0.49591684 0 50 255
-0.10392153 0.26896352 0.50140613 0 50 255
-0.10069061 0.26884028 0.50112987 0 50 255
-0.097358949 0.26843137 0.50032216 0 50 255
-0.094953686 0.2706354 0.50438523 0 50 255
-0.091918632 0.2711359 0.50527382 0 50 255
-0.083808675 0.26578116 0.49521157 0 50 255
-0.08040975 0.26495236 0.49362716 0 50 255
-0.077154994 0.26455081 0.49284011 0 50 255
-0.072374903 0.27009568 0.50309378 0 50 255
-0.069231726 0.27031237 0.50346112 0 50 255
0.00049439457 0.11086227 0.20630141 255 255 80
0.001828505 0.11214295 0.20868365 255 255 80
0.0031250992 0.11101291 0.20658049 255 255 80
0.0044064797 0.1101717 0.20501548 255 255 80
0.0057018492 0.10998464 0.20466837 255 255 80
0.0070023765 0.10994808 0.20460197 255 255 80
0.0082921125 0.10978006 0.20429158 255 255 80
0.0096088629 0.10996671 0.20464188 255 255 80
0.010939695 0.1102507 0.20517394 255 255 80
0.012323214 0.1109484 0.2064766 255 255 80
0.013712552 0.111559 0.20761783 255 255 80
0.01508445 0.11193279 0.20831901 255 255 80
0.016398724 0.11185315 0.20817699 255 255 80
0.017840747 0.11259162 0.20955822 255 255 80
0.019401062 0.11392198 0.21204184 255 255 80
0.020965379 0.11510126 0.21424508 255 255 80
0.022484584 0.11590399 0.21574812 255 255 80
0.024012262 0.11665551 0.21715662 255 255 80
0.02582089 0.11861585 0.22081615 255 255 80
0.054295078 0.17377177 0.32364586 255 255 80
0.056313187 0.17364754 0.32343677 255 255 80
0.059315968 0.17646146 0.32870132 255 255 80
0.067939192 0.18880826 0.35175234 255 255 80
0.070495941 0.18967001 0.353385 255 255 80
0.073035009 0.19043253 0.35483366 255 255 80
0.077732816 0.19660948 0.3663727 255 255 80
0.080793455 0.19840668 0.36975214 255 255 80
0.084248438 0.20104335 0.37469733 0 50 255
0.086410657 0.20053503 0.37378186 0 50 255
0.088959686 0.20092756 0.37454608 0 50 255
0.091555744 0.20140317 0.37546584 0 50 255
0.095377088 0.2044816 0.38123897 0 50 255
0.099148035 0.20730226 0.38653296 0 50 255
0.10254136 0.20921616 0.39013746 0 50 255
0.1065234 0.21221267 0.395762 0 50 255
0.11207528 0.21812636 0.40682885 0 50 255
0.11336713 0.21566932 0.40228438 0 50 255
0.11603576 0.21588212 0.40271989 0 50 255
0.11882169 0.21629933 0.40353703 0 50 255
-0.26982561 0.2864503 0.54296058 0 50 255
-0.18259773 0.26443762 0.50013191 0 50 255
-0.18128952 0.26717716 0.50525606 0 50 255
-0.16411799 0.27052224 0.51123339 0 50 255
-0.15798548 0.26565909 0.50198627 0 50 255
-0.1535946 0.26358506 0.49801087 0 50 255
-0.15039748 0.26351562 0.49782366 0 50 255
-0.14770645 0.26434907 0.49934226 0 50 255
-0.14403623 0.26342836 0.49754748 0 50 255
-0.14031342 0.26236817 0.49549007 0 50 255
-0.13851854 0.26494715 0.50030541 0 50 255
-0.13664353 0.26749027 0.50505239 0 50 255
-0.13438971 0.26939639 0.50859612 0 50 255
-0.13009341 0.26720133 0.50439775 0 50 255
-0.12793636 0.26940033 0.50849468 0 50 255
-0.12605391 0.27230653 0.51392591 0 50 255
-0.12277607 0.27227283 0.51380879 0 50 255
-0.11844359 0.26983482 0.50915551 0 50 255
-0.11450371 0.26817957 0.50598085 0 50 255
-0.10993942 0.26492426 0.49978897 0 50 255
-0.10548056 0.26173708 0.49372768 0 50 255
-0.10236817 0.26179823 0.49379516 0 50 255
-0.10028699 0.264584 0.49900207 0 50 255
-0.097752959 0.26631811 0.50222564 0 50 255
-0.094970897 0.26747084 0.50435334 0 50 255
-0.090579495 0.26401353 0.49778953 0 50 255
-0.08479397 0.25609556 0.48281807 0 50 255
-0.08138869 0.25504184 0.48079044 0 50 255
-0.079792969 0.25979784 0.48971534 0 50 255
-0.07831502 0.26533926 0.50012028 0 50 255
-0.076130599 0.26885501 0.50670701 0 50 255
-0.073336042 0.27043173 0.50963968 0 50 255
-0.069531836 0.26825914 0.50550807 0 50 255
-0.064369015 0.26038039 0.49062628 0 50 255
0.00049641443 0.1101381 0.20735787 255 255 80
0.0018263678 0.1107229 0.20845787 255 255 80
0.0031186235 0.10949168 0.20613962 255 255 80
0.0044137142 0.10905977 0.20532684 255 255 80
0.0057355496 0.10933495 0.20584601 255 255 80
0.007028135 0.10905384 0.20531848 255 255 80
0.0083373645 0.1090786 0.20536749 255 255 80
0.0096483268 0.10911621 0.20544134 255 255 80
0.011026414 0.1098133 0.20675758 255 255 80
0.012443182 0.11070582 0.20844243 255 255 80
0.013856113 0.11139544 0.20974605 255 255 80
0.015156567 0.11113903 0.20926899 255 255 80
0.016450707 0.11088149 0.20879048 255 255 80
0.01792134 0.11176313 0.2104577 255 255 80
0.019533059 0.11334079 0.21343635 255 255 80
0.021103065 0.11448693 0.21560323 255 255 80
0.02264718 0.11536121 0.21725897 255 255 80
0.024303015 0.11667123 0.21973608 255 255 80
0.05382761 0.17694433 0.33340666 255 255 80
0.05553253 0.17562798 0.3309491 255 255 80
0.056942943 0.17351045 0.32698202 255 255 80
0.059948705 0.17623208 0.33213529 255 255 80
0.063931823 0.1815438 0.34217176 255 255 80
0.068403825 0.18784842 0.35408208 255 255 80
0.071860358 0.19105144 0.3601481 255 255 80
0.075237572 0.19385229 0.36545762 255 255 80
0.077991396 0.19492729 0.36751476 255 255 80
0.07967937 0.1933534 0.36457822 255 255 80
0.081614316 0.19245088 0.36290789 255 255 80
0.083938554 0.19249076 0.36301506 255 255 80
0.086568505 0.1932109 0.36440575 255 255 80
0.093337141 0.19773792 0.37301224 255 255 80
0.097020157 0.20045045 0.37816456 0 50 255
0.10035173 0.20232339 0.38173404 0 50 255
0.10893171 0.20949686 0.3953447 0 50 255
0.11073402 0.20816477 0.39286923 0 50 255
0.11459498 0.21067609 0.39764801 0 50 255
0.11961122 0.21515736 0.40614665 0 50 255
0.15111232 0.23618072 0.44614798 0 50 255
-0.25946534 0.24991676 0.47972125 0 50 255
-0.17950118 0.25245455 0.48324841 0 50 255
-0.16078389 0.26184496 0.50075698 0 50 255
-0.15465134 0.25693068 0.49130183 0 50 255
-0.15077497 0.25563991 0.48877695 0 50 255
-0.14847313 0.25702071 0.49136025 0 50 255
-0.14948146 0.26431391 0.50524491 0 50 255
-0.14898369 0.2692053 0.51453608 0 50 255
-0.14567415 0.26912147 0.51431733 0 50 255
-0.14043625 0.26538983 0.50712836 0 50 255
-0.13438222 0.2599048 0.49659139 0 50 255
-0.13054961 0.25855607 0.4939594 0 50 255
-0.12663798 0.25698063 0.49089542 0 50 255
-0.12774582 0.27264729 0.52070934 0 50 255
-0.12493636 0.273736 0.52273262 0 50 255
-0.1187037 0.26717937 0.51015806 0 50 255
-0.11486343 0.26579082 0.50745386 0 50 255
-0.1099903 0.2618632 0.49990386 0 50 255
-0.10667582 0.26152331 0.49920458 0 50 255
-0.10291909 0.26004538 0.49633402 0 50 255
-0.10122322 0.26384586 0.50353867 0 50 255
-0.099677771 0.26829958 0.5119893 0 50 255
-0.095841914 0.26668093 0.50885272 0 50 255
-0.084722005 0.25280359 0.48228574 0 50 255
-0.081823133 0.25332209 0.48323262 0 50 255
-0.079456523 0.26597133 0.50727654 0 50 255
-0.077581421 0.27068549 0.51622593 0 50 255
-0.073894538 0.26921573 0.51338279 0 50 255
-0.070020676 0.26689759 0.50892365 0 50 255
-0.064840399 0.25913379 0.49408326 0 50 255
-0.061693337 0.2591188 0.49401987 0 50 255
-0.00079337909 0.10470536 0.19947129 255 255 80
0.00049208396 0.10800728 0.20576008 255 255 80
0.0018041958 0.10810445 0.20594424 255 255 80
0.0031041654 0.10769831 0.20517024 255 255 80
0.0043984046 0.10739273 0.20458856 255 255 80
0.0057174023 0.10769308 0.20516188 255 255 80
0.007000335 0.10732867 0.20446944 255 255 80
0.0083394656 0.10780498 0.20537935 255 255 80
0.0097016459 0.10840967 0.20653453 255 255 80
0.011099936 0.10922524 0.20809224 255 255 80
0.012539511 0.11022973 0.21001057 255 255 80
0.013917984 0.11055525 0.21063606 255 255 80
0.015245168 0.11045188 0.21044515 255 255 80
0.016546909 0.11019581 0.20996389 255 255 80
0.018000487 0.11091361 0.21133891 255 255 80
0.019541975 0.11203554 0.21348475 255 255 80
0.02111382 0.11317424 0.2156634 255 255 80
0.04274093 0.1647926 0.31412297 255 255 80
0.045502231 0.16759855 0.31949097 255 255 80
0.052501146 0.17751138 0.33843148 255 255 80
0.054768685 0.17788078 0.33915892 255 255 80
0.056882024 0.17774041 0.33891529 255 255 80
0.058662273 0.17660753 0.33677977 255 255 80
0.061391708 0.17831145 0.34005469 255 255 80
0.063875407 0.17920996 0.3417947 255 255 80
0.066719823 0.1810281 0.34528977 255 255 80
0.071194164 0.18701184 0.35673222 255 255 80
0.074911669 0.19069934 0.36379671 255 255 80
0.077182136 0.19059266 0.36362424 255 255 80
0.078582607 0.18840636 0.35948452 255 255 80
0.079179585 0.18447176 0.35200846 255 255 80
0.080630124 0.18268746 0.34863523 255 255 80
0.081894845 0.18058893 0.34466219 255 255 80
0.087044619 0.18694367 0.35682383 255 255 80
0.090650879 0.18974487 0.362205 255 255 80
0.094516851 0.19293763 0.36833507 255 255 80
0.10483012 0.1991919 0.38038737 255 255 80
0.10705294 0.19883235 0.3797389 255 255 80
0.11248673 0.20432107 0.39026105 0 50 255
0.11688507 0.20773298 0.3968184 0 50 255
0.12150268 0.2113824 0.40383124 0 50 255
0.1246553 0.21238501 0.40578854 0 50 255
0.12839158 0.21432136 0.4095307 0 50 255
0.13057803 0.21364518 0.40828124 0 50 255
0.13370457 0.2145036 0.40996465 0 50 255
0.14971265 0.22693728 0.43386498 0 50 255
-0.16459794 0.25474051 0.49318984 0 50 255
-0.16150343 0.25479057 0.49322775 0 50 255
-0.15874186 0.25537834 0.49430645 0 50 255
-0.15479173 0.25403923 0.49165589 0 50 255
-0.15029982 0.2517378 0.4871439 0 50 255
-0.15113944 0.25845709 0.50008732 0 50 255
-0.14739285 0.2574538 0.49808729 0 50 255
-0.14638256 0.26129091 0.50545144 0 50 255
-0.14586128 0.26619247 0.51487315 0 50 255
-0.1422969 0.26563799 0.51374096 0 50 255
-0.13498639 0.25790042 0.49871913 0 50 255
-0.12976514 0.25387883 0.49088627 0 50 255
-0.1250149 0.25060371 0.4844988 0 50 255
-0.12443613 0.26932597 0.52052176 0 50 255
-0.12046718 0.26785254 0.51761812 0 50 255
-0.11557776 0.26419261 0.51049078 0 50 255
-0.11118396 0.26148704 0.50520968 0 50 255
-0.10618533 0.25715601 0.49679038 0 50 255
-0.10279746 0.25658008 0.49562728 0 50 255
-0.10140579 0.26110792 0.50432301 0 50 255
-0.10054825 0.26735175 0.51633203 0 50 255
-0.097003289 0.26663029 0.51488918 0 50 255
-0.083838329 0.25640425 0.49500492 0 50 255
-0.082063295 0.26076806 0.50338537 0 50 255
-0.079879381 0.26413435 0.50984025 0 50 255
-0.078288011 0.26982799 0.52078712 0 50 255
-0.074338198 0.26753721 0.51632434 0 50 255
-0.070448264 0.26526025 0.51189023 0 50 255
-0.065884933 0.2601043 0.50190276 0 50 255
-0.00081133295 0.10569178 0.20376994 255 255 80
0.00049158686 0.1067261 0.20576242 255 255 80
0.0017962481 0.10635863 0.20505302 255 255 80
0.0031105455 0.1066307 0.2055773 255 255 80
0.0044227447 0.10669079 0.20569363 255 255 80
0.0056948601 0.10597736 0.20431939 255 255 80
0.0070094811 0.10617315 0.20469874 255 255 80
0.0083648385 0.10682772 0.20596336 255 255 80
0.0097668469 0.10781973 0.20787929 255 255 80
0.011208778 0.10896291 0.21008745 255 255 80
0.012536591 0.10887113 0.20991528 255 255 80
0.013954822 0.10950659 0.21114604 255 255 80
0.015348232 0.10985266 0.21181951 255 255 80
0.016719364 0.10999621 0.21210326 255 255 80
0.018120827 0.11030292 0.21270232 255 255 80
0.019592963 0.11096724 0.21399173 255 255 80
0.0211372 0.11192694 0.21585152 255 255 80
0.041355211 0.16524751 0.31876209 255 255 80
0.043613136 0.16611685 0.3204582 255 255 80
0.046431996 0.16894956 0.32594323 255 255 80
0.049127795 0.17111129 0.33013526 255 255 80
0.052414928 0.17507084 0.33779761 255 255 80
0.05406557 0.17346771 0.334728 255 255 80
0.056553073 0.17456944 0.33687842 255 255 80
0.05907958 0.17570673 0.3390986 255 255 80
0.061890375 0.17757957 0.34273967 255 255 80
0.064269416 0.17812833 0.34382623 255 255 80
0.067243651 0.18023629 0.34792361 255 255 80
0.070497014 0.18293428 0.35316139 255 255 80
0.073617227 0.18513082 0.35743266 255 255 80
0.07578627 0.18487547 0.35697106 255 255 80
0.076466046 0.18110779 0.34972748 255 255 80
0.077012956 0.17724727 0.34230402 255 255 80
0.078071378 0.17474401 0.33750111 255 255 80
0.080695234 0.17578483 0.33954349 255 255 80
0.090199858 0.18651025 0.3603304 255 255 80
0.091485813 0.18448456 0.35645211 255 255 80
0.093872562 0.184723 0.35694861 255 255 80
0.11625623 0.20410839 0.39461148 0 50 255
0.11932638 0.20507732 0.39652663 0 50 255
0.12076043 0.20325252 0.39304009 0 50 255
0.12651744 0.20863037 0.40348259 0 50 255
0.13086817 0.2115218 0.40911838 0 50 255
0.13170117 0.20872572 0.40375379 0 50 255
0.13372338 0.20788522 0.40217134 0 50 255
-0.26289794 0.23871908 0.46967995 0 50 255
-0.16526042 0.25262019 0.49508607 0 50 255
-0.16167177 0.25191915 0.4936516 0 50 255
-0.15613428 0.24809386 0.48609617 0 50 255
-0.15273727 0.24758436 0.48503858 0 50 255
-0.14977853 0.24777903 0.48536071 0 50 255
-0.15010406 0.2535291 0.49656394 0 50 255
-0.14709072 0.25376561 0.49696705 0 50 255
-0.14233394 0.26243836 0.51376688 0 50 255
-0.13474372 0.2542696 0.4977164 0 50 255
-0.12852766 0.24836405 0.48609975 0 50 255
-0.12369689 0.24491078 0.4792853 0 50 255
-0.12158091 0.2467941 0.4829154 0 50 255
-0.12421913 0.26554805 0.51949477 0 50 255
-0.12181538 0.26751727 0.52328908 0 50 255
-0.11659444 0.26323682 0.51485968 0 50 255
-0.1114613 0.25891328 0.50634867 0 50 255
-0.10709105 0.25615761 0.50090629 0 50 255
-0.10428356 0.25708583 0.5026688 0 50 255
-0.10176785 0.25881496 0.50599772 0 50 255
-0.10067978 0.26440635 0.51687717 0 50 255
-0.097867139 0.26569346 0.51934201 0 50 255
-0.094156049 0.26454628 0.51704961 0 50 255
-0.089581721 0.26080301 0.5096854 0 50 255
-0.085807718 0.2591964 0.50649881 0 50 255
-0.082162298 0.25786802 0.50385791 0 50 255
-0.079695597 0.26028171 0.50852966 0 50 255
-0.077584609 0.26411071 0.51596677 0 50 255
-0.00082637987 0.1062456 0.20732947 255 255 80
0.00049213495 0.10566842 0.20620151 255 255 80
0.001803647 0.10552092 0.20591274 255 255 80
0.0031215255 0.10571302 0.2062874 255 255 80
0.0044382699 0.10576409 0.20638762 255 255 80
0.0057192245 0.10513379 0.20515889 255 255 80
0.0070125004 0.10492234 0.20474821 255 255 80
0.0083953971 0.10590774 0.20667386 255 255 80
0.0098206401 0.10708759 0.2089798 255 255 80
0.011216682 0.10770527 0.21018943 255 255 80
0.012580641 0.10791592 0.21060549 255 255 80
0.01398553 0.10840322 0.21156217 255 255 80
0.015470056 0.10936782 0.21345122 255 255 80
0.016813723 0.10926117 0.21325025 255 255 80
0.018123262 0.10896526 0.21268061 255 255 80
0.01960952 0.10969914 0.21412161 255 255 80
0.02117499 0.11075188 0.21618584 255 255 80
0.038315177 0.15902635 0.31048051 255 255 80
0.041305974 0.16302526 0.31830662 255 255 80
0.043180354 0.1624499 0.31720278 255 255 80
0.046173405 0.16594648 0.3240512 255 255 80
0.049102679 0.16892454 0.32988873 255 255 80
0.052630782 0.17363386 0.33910912 255 255 80
0.054619219 0.17309272 0.33807674 255 255 80
0.057943538 0.17666568 0.34508118 255 255 80
0.059830025 0.17575392 0.34332681 255 255 80
0.062595084 0.17739636 0.34656289 255 255 80
0.065711752 0.17988959 0.35146257 255 255 80
0.068240561 0.18066239 0.35300225 255 255 80
0.070728704 0.18128176 0.35424304 255 255 80
0.072347417 0.17970337 0.35118976 255 255 80
0.074511565 0.17953379 0.35089007 255 255 80
0.075540781 0.17671911 0.34542078 255 255 80
0.076398887 0.17367457 0.33950186 255 255 80
0.077445567 0.1712144 0.33472469 255 255 80
0.07967668 0.1714344 0.33518744 255 255 80
0.083853304 0.17571987 0.34360039 255 255 80
0.089286834 0.1778388 0.34781402 255 255 80
0.092039376 0.17889111 0.34990814 255 255 80
0.094757535 0.17982855 0.35177842 255 255 80
0.098005719 0.1817055 0.35548747 255 255 80
0.11472018 0.19473924 0.38115036 255 255 80
0.11813473 0.1963909 0.38442504 255 255 80
0.12801768 0.20437299 0.40013766 0 50 255
0.16744238 0.22680382 0.4444986 0 50 255
-0.19689471 0.23838213 0.47374991 0 50 255
-0.17548244 0.24193284 0.48033357 0 50 255
-0.17476867 0.24520139 0.48676199 0 50 255
-0.16163318 0.24399903 0.4841316 0 50 255
-0.15614823 0.24028261 0.47669765 0 50 255
-0.15153413 0.23778604 0.47168547 0 50 255
-0.15169409 0.24283139 0.48163331 0 50 255
-0.13812004 0.25149679 0.49845043 0 50 255
-0.13526703 0.25207779 0.49954146 0 50 255
-0.13072869 0.24947074 0.49431577 0 50 255
-0.12896992 0.25217026 0.49960527 0 50 255
-0.12528285 0.25114071 0.49750689 0 50 255
-0.12279738 0.25252908 0.50019884 0 50 255
-0.12188404 0.25731027 0.50961047 0 50 255
-0.11956235 0.25929826 0.51348931 0 50 255
-0.11073525 0.25402185 0.50292826 0 50 255
-0.10649198 0.25155085 0.49798173 0 50 255
-0.10355076 0.25209838 0.4990122 0 50 255
-0.10087906 0.25335765 0.50145203 0 50 255
-0.099898972 0.25908643 0.51273763 0 50 255
-0.097690582 0.26190895 0.51827091 0 50 255
-0.093751952 0.26012796 0.51469576 0 50 255
-0.089046501 0.25601366 0.50650597 0 50 255
-0.085673898 0.25556645 0.50557351 0 50 255
-0.082767986 0.25653091 0.50743479 0 50 255
-0.079253532 0.25561124 0.50557035 0 50 255
-0.07663849 0.25763741 0.50953358 0 50 255
-0.06728185 0.24709745 0.48860744 0 50 255
-0.00082687731 0.1049047 0.20723434 255 255 80
0.00049047387 0.1041358 0.20571375 255 255 80
0.001810299 0.1046286 0.20668633 255 255 80
0.0031367224 0.10492672 0.20727509 255 255 80
0.0044754567 0.10533775 0.20808761 255 255 80
0.0057675922 0.10471468 0.20685813 255 255 80
0.0070937653 0.10482642 0.20708096 255 255 80
0.0084648626 0.10546274 0.20834084 255 255 80
0.0098605873 0.10619166 0.2097844 255 255 80
0.011239923 0.10659103 0.2105778 255 255 80
0.01260811 0.10681072 0.21101692 255 255 80
0.014076665 0.10775638 0.21289112 255 255 80
0.015482933 0.10810084 0.21357834 255 255 80
0.016800907 0.10782298 0.21303682 255 255 80
0.018104423 0.10750083 0.21240841 255 255 80
0.01959284 0.10824505 0.21388774 255 255 80
0.021196121 0.10948576 0.21634907 255 255 80
0.054436699 0.17037004 0.33686709 255 255 80
0.056839809 0.17114638 0.33842817 255 255 80
0.058526751 0.16978835 0.33576959 255 255 80
0.061336353 0.17166822 0.339515 255 255 80
0.064570867 0.17456886 0.34528089 255 255 80
0.067789376 0.17723675 0.35058808 255 255 80
0.069430538 0.17574207 0.34766239 255 255 80
0.076784074 0.16764127 0.33179426 255 255 80
0.078915052 0.16768435 0.33191276 255 255 80
0.09399429 0.17616186 0.34887525 255 255 80
0.096646257 0.17695676 0.35048741 255 255 80
0.10089124 0.18056694 0.35767686 255 255 80
0.1043692 0.18267556 0.36189356 255 255 80
0.10857618 0.1859418 0.3684051 255 255 80
0.11309884 0.18959945 0.37569389 255 255 80
0.11636443 0.19104216 0.37859514 255 255 80
0.12085047 0.19438961 0.38527238 255 255 80
0.12451167 0.19630381 0.38911039 255 255 80
-0.18232076 0.23987193 0.48236528 0 50 255
-0.16401133 0.24446735 0.49116427 0 50 255
-0.15666993 0.23804562 0.47820061 0 50 255
-0.15355007 0.2379113 0.47786933 0 50 255
-0.15405181 0.24349599 0.48902383 0 50 255
-0.13829231 0.23774037 0.47722152 0 50 255
-0.13894534 0.24421321 0.49015287 0 50 255
-0.13516913 0.24301951 0.48769605 0 50 255
-0.13258147 0.24395694 0.48951656 0 50 255
-0.13086815 0.24658696 0.49473304 0 50 255
-0.12895215 0.24895526 0.49942365 0 50 255
-0.12579538 0.24898738 0.49942771 0 50 255
-0.12296661 0.24968728 0.50077176 0 50 255
-0.11995282 0.2500388 0.50141752 0 50 255
-0.11595335 0.24829902 0.49787053 0 50 255
-0.11123528 0.24487974 0.49095801 0 50 255
-0.10932671 0.24762674 0.49640912 0 50 255
-0.10601899 0.24727391 0.49564648 0 50 255
-0.10216294 0.24558155 0.49220008 0 50 255
-0.099015355 0.24553917 0.49206215 0 50 255
-0.096407935 0.25520846 0.51133227 0 50 255
-0.092374071 0.25307029 0.50699693 0 50 255
-0.087598808 0.24867292 0.49813783 0 50 255
-0.08374542 0.24666072 0.49405921 0 50 255
-0.081997834 0.250936 0.50257516 0 50 255
-0.078651167 0.25046638 0.50158858 0 50 255
-0.074885957 0.24856782 0.49774209 0 50 255
-0.070988975 0.24604505 0.4926478 0 50 255
-0.067053594 0.24314986 0.48681015 0 50 255
-0.0020945007 0.10097978 0.20197164 255 255 80
-0.00082456146 0.10321231 0.2064345 255 255 80
0.00048978074 0.10281096 0.20563012 255 255 80
0.0018108211 0.10337594 0.20675918 255 255 80
0.0031393033 0.10371047 0.20742814 255 255 80
0.0044756224 0.10402869 0.20806523 255 255 80
0.0057847374 0.10371354 0.20743631 255 255 80
0.007139727 0.10418504 0.20838152 255 255 80
0.0084878234 0.1044237 0.20886186 255 255 80
0.0098747713 0.10501076 0.21003981 255 255 80
0.011268158 0.10551785 0.21105862 255 255 80
0.01265285 0.10584401 0.21171634 255 255 80
0.014019141 0.10596819 0.21197082 255 255 80
0.015425208 0.10634471 0.2127309 255 255 80
0.01678993 0.10639839 0.21284591 255 255 80
0.018127881 0.1062871 0.21263163 255 255 80
0.019659253 0.10724644 0.21455999 255 255 80
0.021315306 0.10871693 0.21751194 255 255 80
0.096967682 0.17530955 0.3515828 255 255 80
0.10052636 0.17764835 0.35631317 255 255 80
0.1038864 0.17954081 0.36014968 255 255 80
0.10670171 0.18043061 0.36197579 255 255 80
0.11028868 0.18256019 0.36629018 255 255 80
0.11461613 0.18580222 0.37283799 255 255 80
0.11926933 0.18943043 0.38016251 255 255 80
0.12280904 0.19118121 0.38372082 255 255 80
0.16721526 0.21720563 0.4364655 0 50 255
-0.23081997 0.23958248 0.4888432 0 50 255
-0.16939004 0.23582506 0.48002991 0 50 255
-0.16621767 0.23564222 0.47959438 0 50 255
-0.16538373 0.23882954 0.48601723 0 50 255
-0.16330409 0.24030502 0.48895517 0 50 255
-0.15841717 0.23762673 0.48344183 0 50 255
-0.15729302 0.24059848 0.48942313 0 50 255
-0.15486784 0.24165985 0.49151748 0 50 255
-0.13894449 0.23581083 0.47937074 0 50 255
-0.13879737 0.24083732 0.48952577 0 50 255
-0.13563064 0.24073465 0.48925444 0 50 255
-0.13336022 0.24225549 0.49228272 0 50 255
-0.13091159 0.24351802 0.49478588 0 50 255
-0.13075845 0.24921782 0.50630361 0 50 255
-0.12616259 0.24652423 0.50076938 0 50 255
-0.12245482 0.24547161 0.49857011 0 50 255
-0.11819012 0.24321713 0.49393126 0 50 255
-0.11426394 0.24155535 0.49049786 0 50 255
-0.11044534 0.24003427 0.48735175 0 50 255
-0.10876234 0.24320081 0.49372351 0 50 255
-0.10604191 0.24416712 0.49562854 0 50 255
-0.10199648 0.24204843 0.49127263 0 50 255
-0.099203207 0.24286141 0.49286813 0 50 255
-0.096860848 0.24486747 0.49688545 0 50 255
-0.09542986 0.24939084 0.50601053 0 50 255
-0.091651268 0.24788101 0.50289476 0 50 255
-0.08705765 0.24397792 0.49492598 0 50 255
-0.082487881 0.23985127 0.48650655 0 50 255
-0.080783971 0.24406102 0.49499762 0 50 255
-0.077536955 0.24376157 0.49434385 0 50 255
-0.074684575 0.24473004 0.49626255 0 50 255
-0.071365081 0.24418598 0.49511555 0 50 255
-0.068185203 0.24409169 0.49488199 0 50 255
-0.00082695636 0.10211177 0.20681389 255 255 80
0.00049217785 0.10212739 0.20684379 255 255 80
0.0018205952 0.10264318 0.20788755 255 255 80
0.0031405024 0.10244642 0.20748892 255 255 80
0.0044682859 0.10254695 0.20769319 255 255 80
0.0057994146 0.1026606 0.20792486 255 255 80
0.0071608229 0.10316812 0.20895509 255 255 80
0.0085040564 0.10329556 0.20921625 255 255 80
0.0099084536 0.10403056 0.21070887 255 255 80
0.011312093 0.10458297 0.21183243 255 255 80
0.012675595 0.10468598 0.21204661 255 255 80
0.013974898 0.10429002 0.21125086 255 255 80
0.015370334 0.10461803 0.2119223 255 255 80
0.016784107 0.10500774 0.2127196 255 255 80
0.01820617 0.10538714 0.21349685 255 255 80
0.019707162 0.10613886 0.21502918 255 255 80
0.021309106 0.10730115 0.2173942 255 255 80
0.022967903 0.10859025 0.22001716 255 255 80
0.10466924 0.17473641 0.35501206 255 255 80
0.12200773 0.18751138 0.38114786 255 255 80
-0.2645922 0.25730756 0.53206879 0 50 255
-0.20552737 0.23942496 0.49431151 0 50 255
-0.16434257 0.23870529 0.49197167 0 50 255
-0.14815386 0.23288313 0.47971329 0 50 255
-0.1445832 0.23203994 0.47791243 0 50 255
-0.14236493 0.23337767 0.48060346 0 50 255
-0.1412755 0.23666516 0.48730877 0 50 255
-0.13853732 0.23727621 0.4885025 0 50 255
-0.13587403 0.23804657 0.49002421 0 50 255
-0.13253391 0.23763961 0.48912275 0 50 255
-0.13075291 0.24007595 0.4940736 0 50 255
-0.12888473 0.24246827 0.49893308 0 50 255
-0.12552895 0.24211225 0.49813724 0 50 255
-0.1214285 0.24026456 0.49427372 0 50 255
-0.1165636 0.23676601 0.48701608 0 50 255
-0.11452138 0.23896663 0.49148253 0 50 255
-0.11122422 0.23859876 0.4906666 0 50 255
-0.10979188 0.24232572 0.49827161 0 50 255
-0.10767671 0.24472252 0.50314099 0 50 255
-0.10408302 0.24380311 0.50119299 0 50 255
-0.09972211 0.24097177 0.49531642 0 50 255
-0.095178761 0.23750052 0.48812702 0 50 255
-0.092175633 0.24607185 0.50563455 0 50 255
-0.087866142 0.24305576 0.49938506 0 50 255
-0.083114304 0.23854375 0.49006486 0 50 255
-0.078790247 0.23495556 0.48264545 0 50 255
-0.075925998 0.23560615 0.48393533 0 50 255
-0.073348545 0.23723957 0.48724487 0 50 255
-0.070847645 0.23927605 0.49138287 0 50 255
-0.0021656735 0.10168487 0.20858806 255 255 80
-0.00083364733 0.10152872 0.20826519 255 255 80
0.00049396453 0.10130364 0.20780176 255 255 80
0.0018223837 0.10145102 0.20810317 255 255 80
0.0031395354 0.10111105 0.20740573 255 255 80
0.0044557229 0.10095068 0.2070775 255 255 80
0.0057899076 0.10117808 0.2075455 255 255 80
0.0071483152 0.10166524 0.20854719 255 255 80
0.0085183783 0.10213923 0.20952269 255 255 80
0.0099118585 0.10272727 0.21073301 255 255 80
0.011325336 0.10335734 0.21203038 255 255 80
0.012673554 0.10332089 0.21196128 255 255 80
0.014015967 0.10324872 0.21181974 255 255 80
0.015376542 0.10331123 0.21195525 255 255 80
0.016802227 0.10376576 0.21289589 255 255 80
0.01832751 0.10472141 0.21486557 255 255 80
0.019768732 0.10509717 0.21564633 255 255 80
0.021277985 0.10576221 0.2170215 255 255 80
0.022800896 0.10640978 0.21836175 255 255 80
0.024324305 0.106985 0.21955439 255 255 80
0.025483163 0.10598147 0.21750787 255 255 80
0.026584415 0.10485438 0.21520819 255 255 80
0.11715209 0.17772287 0.36591169 255 255 80
-0.16277878 0.23333587 0.48719728 0 50 255
-0.14384675 0.23271641 0.48550257 0 50 255
-0.14287263 0.23620391 0.49271131 0 50 255
-0.13998616 0.23661529 0.49350271 0 50 255
-0.13809463 0.23876595 0.49792147 0 50 255
-0.13407211 0.23724674 0.49468729 0 50 255
-0.13195494 0.23910721 0.49850067 0 50 255
-0.12838115 0.238355 0.49686721 0 50 255
-0.12648031 0.2407494 0.50179338 0 50 255
-0.12193128 0.23809667 0.49620062 0 50 255
-0.11746463 0.23546828 0.49066067 0 50 255
-0.11407961 0.23492402 0.48946518 0 50 255
-0.11124457 0.23551366 0.49063298 0 50 255
-0.10975365 0.23906527 0.49797121 0 50 255
-0.10793394 0.24209072 0.50421268 0 50 255
-0.10440736 0.24135603 0.50262314 0 50 255
-0.093621388 0.23055089 0.48001122 0 50 255
-0.08800976 0.24025999 0.50006223 0 50 255
-0.082864046 0.23470609 0.4884519 0 50 255
-0.079323061 0.23344162 0.48577115 0 50 255
-0.076334462 0.23376629 0.48639885 0 50 255
-0.073989391 0.23617275 0.49135891 0 50 255
-0.07034748 0.23446968 0.48777038 0 50 255
-0.0021870891 0.10131511 0.21052526 255 255 80
-0.00084391219 0.10135467 0.21060486 255 255 80
0.00049345574 0.10000259 0.20779364 255 255 80
0.0018193163 0.099988423 0.20776328 255 255 80
0.0031329601 0.099597603 0.20695114 255 255 80
0.0044490797 0.099493794 0.20673627 255 255 80
0.0057835169 0.099753298 0.2072771 255 255 80
0.0071589793 0.10049201 0.20881453 255 255 80
0.0085566118 0.10126116 0.21041609 255 255 80
0.0099490099 0.10176808 0.21147364 255 255 80
0.011339095 0.10213305 0.21223707 255 255 80
0.01272676 0.10240062 0.212799 255 255 80
0.014060118 0.10222176 0.21243402 255 255 80
0.015389897 0.10205062 0.21208584 255 255 80
0.01680287 0.10241422 0.21284987 255 255 80
0.018383618 0.10366957 0.21546814 255 255 80
0.019841818 0.10410725 0.21638793 255 255 80
0.021243248 0.10420949 0.2166113 255 255 80
0.022680273 0.10446322 0.21715042 255 255 80
0.024134504 0.10476243 0.21778493 255 255 80
0.025481487 0.10458889 0.2174374 255 255 80
0.026565099 0.10340808 0.2149964 255 255 80
0.027545778 0.10196222 0.21200462 255 255 80
0.02838775 0.10016226 0.20827684 255 255 80
0.029555235 0.099620432 0.20716551 255 255 80
0.030537765 0.098528229 0.20491007 255 255 80
0.031831566 0.0984888 0.20484449 255 255 80
0.046786513 0.10264698 0.21369588 255 255 80
0.048029047 0.10239438 0.21319294 255 255 80
0.048968099 0.10152648 0.21140909 255 255 80
0.050454315 0.10180914 0.21202129 255 255 80
0.051777519 0.10175674 0.21193616 255 255 80
0.052841324 0.10121021 0.21082206 255 255 80
0.054832507 0.10242304 0.21337321 255 255 80
0.11515266 0.17240334 0.35959971 255 255 80
0.11718853 0.17203702 0.35888094 255 255 80
-0.22440518 0.23005134 0.48804283 0 50 255
-0.16141124 0.22830357 0.48301092 0 50 255
-0.15143833 0.22265448 0.47092599 0 50 255
-0.14243826 0.22737774 0.48064539 0 50 255
-0.14041483 0.22905782 0.48412952 0 50 255
-0.138715 0.23135297 0.48891276 0 50 255
-0.13858333 0.23642878 0.4995707 0 50 255
-0.13574125 0.23701024 0.50073087 0 50 255
-0.13216645 0.23630971 0.49918333 0 50 255
-0.12671641 0.23213947 0.49030831 0 50 255
-0.12374539 0.23241501 0.49082497 0 50 255
-0.12147652 0.23405787 0.49422947 0 50 255
-0.11714363 0.23170559 0.48919886 0 50 255
-0.1130871 0.22978659 0.48508501 0 50 255
-0.10898834 0.22767186 0.48055992 0 50 255
-0.10849734 0.23318918 0.49214426 0 50 255
-0.10646158 0.23561591 0.49720475 0 50 255
-0.091714017 0.22285286 0.47010434 0 50 255
-0.089231491 0.22413677 0.47275886 0 50 255
-0.08784394 0.228357 0.48160657 0 50 255
-0.086044788 0.23177415 0.48876008 0 50 255
-0.08226835 0.22992195 0.4848026 0 50 255
-0.078790776 0.22879328 0.4823727 0 50 255
-0.076642059 0.23158857 0.48821679 0 50 255
-0.074411862 0.23436397 0.49401924 0 50 255
-0.070755213 0.23269358 0.49045169 0 50 255
-0.0022080166 0.10089703 0.21241257 255 255 80
-0.00084740215 0.10034613 0.21125013 255 255 80
0.0004976237 0.099636987 0.20975547 255 255 80
0.0018181184 0.098630607 0.20763595 255 255 80
0.0031322418 0.098272793 0.20688267 255 255 80
0.0044396007 0.097977802 0.20626245 255 255 80
0.005769066 0.098193929 0.20671917 255 255 80
0.0071369465 0.098861635 0.20812738 255 255 80
0.0085620023 0.099987403 0.21050085 255 255 80
0.0099510588 0.10044434 0.21146715 255 255 80
0.011378871 0.10113654 0.2129297 255 255 80
0.012753609 0.1012596 0.21319485 255 255 80
0.01411015 0.10122839 0.21313608 255 255 80
0.015429392 0.10095858 0.21257573 255 255 80
0.016830796 0.10122658 0.21314862 255 255 80
0.0183383 0.10204487 0.21488117 255 255 80
0.019909624 0.10307973 0.21707073 255 255 80
0.021331737 0.10325769 0.21745673 255 255 80
0.022728749 0.10329983 0.21755756 255 255 80
0.024251625 0.10387626 0.21878445 255 255 80
0.025671592 0.10397316 0.21900229 255 255 80
0.02704886 0.10389607 0.21885437 255 255 80
0.028067714 0.10251745 0.21596536 255 255 80
0.029134121 0.10143345 0.21369737 255 255 80
0.030364184 0.1009907 0.21278077 255 255 80
0.031916324 0.10161121 0.21410514 255 255 80
0.033033356 0.10085246 0.21252389 255 255 80
0.034781195 0.10200353 0.21496789 255 255 80
0.037093099 0.10465885 0.22058335 255 255 80
0.038933575 0.10583863 0.22309028 255 255 80
0.040232256 0.10551437 0.22242768 255 255 80
0.04113619 0.10421219 0.21970385 255 255 80
0.042171203 0.10331692 0.217838 255 255 80
0.043092523 0.1022091 0.21552414 255 255 80
0.043855026 0.10080469 0.21258484 255 255 80
0.044840068 0.099980675 0.21086948 255 255 80
0.045933153 0.099438533 0.20974877 255 255 80
0.047154099 0.099196047 0.20926043 255 255 80
0.048466951 0.099154957 0.2091973 255 255 80
0.049859993 0.09927576 0.2094761 255 255 80
0.051056989 0.099010132 0.2089399 255 255 80
0.052418802 0.099069543 0.20908986 255 255 80
0.053802405 0.099166185 0.20931879 255 255 80
0.055310357 0.099481866 0.21001048 255 255 80
0.056835454 0.099812783 0.21073478 255 255 80
0.11273916 0.16655144 0.35199636 255 255 80
0.11737456 0.17002496 0.35938397 255 255 80
-0.21507348 0.22688341 0.48763001 0 50 255
-0.17192712 0.22296962 0.47834414 0 50 255
-0.15982129 0.2230131 0.47815982 0 50 255
-0.14039312 0.22109701 0.47364137 0 50 255
-0.13899983 0.22369795 0.47914493 0 50 255
-0.13908531 0.22884862 0.49010789 0 50 255
-0.13844363 0.23301159 0.49895316 0 50 255
-0.13619727 0.23460576 0.50229663 0 50 255
-0.13379487 0.2360014 0.50521463 0 50 255
-0.12765664 0.23071411 0.49382821 0 50 255
-0.12376543 0.2293237 0.49078539 0 50 255
-0.12033744 0.22874194 0.48947445 0 50 255
-0.11679617 0.22790842 0.48762593 0 50 255
-0.11282706 0.2261719 0.48384702 0 50 255
-0.10850903 0.22361898 0.47832358 0 50 255
-0.10739874 0.22772029 0.48703408 0 50 255
-0.10575726 0.23090582 0.49378502 0 50 255
-0.10148431 0.22836524 0.48829171 0 50 255
-0.094745241 0.21993941 0.47021845 0 50 255
-0.090447724 0.21681647 0.46348655 0 50 255
-0.088943481 0.22040477 0.47110221 0 50 255
-0.087502815 0.22440685 0.47960162 0 50 255
-0.08456637 0.22472396 0.48022571 0 50 255
-0.080353335 0.22154528 0.4733814 0 50 255
-0.077843867 0.22299893 0.47643691 0 50 255
-0.076566823 0.22824471 0.48759413 0 50 255
